ply
format ascii 1.0
comment PCL generated
element vertex 1459
property float x
property float y
property float z
element camera 0
property float view_px
property float view_py
property float view_pz
property float x_axisx
property float x_axisy
property float x_axisz
property float y_axisx
property float y_axisy
property float y_axisz
property float z_axisx
property float z_axisy
property float z_axisz
property float focal
property float scalex
property float scaley
property float centerx
property float centery
property int viewportx
property int viewporty
property float k1
property float k2
end_header
2.855696 -3.9933996 -0.39009023
3.1112249 -3.8166177 -0.40720248
3.3183351 -3.5827389 -0.4133178
3.5133588 -3.3424854 -0.41968381
3.6735744 -3.0768554 -0.42055395
3.8367624 -2.8206978 -0.4256433
3.9613962 -2.542655 -0.4247781
12.493104 8.021944 -2.3421984
12.188758 8.963727 -2.3635628
3.8621833 3.2356408 -0.44172779
2.7042558 2.5732286 -0.18825465
2.4506888 2.6463215 -0.15526631
2.1049547 2.5824153 -0.095765643
1.9099362 2.6709263 -0.077326469
1.7835079 2.8592823 -0.081970677
1.5854228 2.9391737 -0.065876611
1.3019271 2.8261981 -0.016840786
1.0901175 2.8211498 0.0080555258
0.90060747 2.8524766 0.023976741
0.69806826 2.8165512 0.048614442
0.50388414 2.7672811 0.072669014
0.33831954 2.8706646 0.071450561
0.16030547 2.9359016 0.07490994
-0.024448618 2.9871585 0.079140551
-0.21408275 3.0150917 0.08527644
-0.40235126 2.9946859 0.096477613
-0.58296907 2.9331088 0.11145825
-0.75792003 2.8627508 0.1258067
-0.93907148 2.8204465 0.13479422
-1.1448025 2.8334482 0.13502489
-1.3388397 2.7963624 0.14005885
-1.5175796 2.7190723 0.14853694
-1.6975838 2.6393101 0.15556873
-1.8422003 2.5051153 0.1679789
-1.9917297 2.3812244 0.17735578
-2.1386318 2.2544503 0.18540263
-2.2886248 2.1290367 0.19145858
-2.4156651 1.980896 0.19901121
-2.5135324 1.8111007 0.20826986
-2.6304412 1.6562461 0.2134902
-2.6787169 1.4616251 0.22422385
-2.7224159 1.2718828 0.23323974
-2.7568245 1.0839585 0.24113578
-2.7920284 0.90111691 0.24706937
-2.7958288 0.71318835 0.25401366
-2.8012569 0.53100425 0.25903162
-2.5967495 0.32605892 0.28015059
-2.5229242 0.15785079 0.28837568
-2.4217267 0.00014542733 0.2974053
-2.3647606 -0.14767011 0.30138862
-2.2669809 -0.284376 0.30758119
-2.1960204 -0.41600463 0.31038016
-2.1180825 -0.54003429 0.31271613
-2.0672915 -0.66694194 0.31157753
-1.9669218 -0.7731111 0.31397879
-1.8844962 -0.88015157 0.31383228
-1.81883 -0.99216574 0.31104499
-1.7641428 -1.1105113 0.3059397
-1.7227895 -1.2410553 0.29791352
-1.6489571 -1.3518895 0.29221833
-1.5822995 -1.4716651 0.28415203
-1.5410951 -1.6242387 0.27050889
-1.4733626 -1.7611592 0.2582984
-1.3971797 -1.8996128 0.24491763
-1.3109405 -2.0378239 0.23051026
-1.1993754 -2.1485794 0.21853279
-1.1262146 -2.3518827 0.19317167
-1.0087116 -2.4962287 0.1741101
-0.86897141 -2.6095254 0.15755464
-0.75645268 -2.8568342 0.12159593
-0.60451597 -3.0411954 0.091831461
-0.43039671 -3.2032506 0.062778652
-0.24188474 -3.4069693 0.025417246
-0.030828353 -3.7765369 -0.038684316
0.20808484 -3.8083618 -0.058087371
0.50373954 -4.2723026 -0.14529131
0.90086019 -4.9454579 -0.27238399
1.2458953 -5.0250182 -0.31416872
1.5480475 -4.9012899 -0.32658279
1.8912946 -4.8927293 -0.36184123
2.15782 -4.6823888 -0.36460584
2.3920572 -4.4328518 -0.36135426
2.651633 -4.2493296 -0.37250537
2.9385493 -4.1076441 -0.39527074
3.1804731 -3.9001539 -0.40683702
3.3886352 -3.6574101 -0.41230854
3.5805418 -3.4053283 -0.41710019
3.7453678 -3.1360548 -0.41860849
3.9051783 -2.8701854 -0.42237225
4.0270791 -2.5841177 -0.42058733
12.57782 8.0740614 -2.3005273
12.318058 9.0561533 -2.3315973
11.997445 10.048066 -2.3615549
2.7526591 2.6184356 -0.18507829
2.5020356 2.7008338 -0.15397525
2.1984167 2.6960771 -0.10802006
1.9676751 2.7505643 -0.080968507
1.8153384 2.9090288 -0.078342162
1.60541 2.974767 -0.059177723
1.3189681 2.861599 -0.010689302
1.0989406 2.8421519 0.016596556
0.9095217 2.8784933 0.031718031
0.71340352 2.8756576 0.050994713
0.5275687 2.8936195 0.064920038
0.350793 2.9706433 0.068479262
0.16506925 3.0104191 0.076163039
-0.024267832 3.0508769 0.082343668
-0.2178387 3.0779788 0.088939302
-0.41005415 3.0572882 0.10034534
-0.59585196 3.0014558 0.11460383
-0.77623636 2.9345579 0.12851694
-0.95920259 2.8829949 0.13879786
-1.1678842 2.8923388 0.13985911
-1.3648556 2.8522058 0.14545612
-1.5414288 2.7630935 0.15543573
-1.7172766 2.6710489 0.16405721
-1.8687304 2.5421653 0.17561398
-2.0218852 2.4181299 0.18488504
-2.1758845 2.2944734 0.19238415
-2.3299291 2.1681283 0.19843844
-2.4639804 2.0211034 0.2055607
-2.5660846 1.8494779 0.21465012
-2.6644433 1.6780984 0.222213
-2.7259009 1.487748 0.23162366
-2.7659178 1.2925224 0.24102941
-2.7900016 1.0972631 0.24985702
-2.8247583 0.91188955 0.25582471
-2.8328822 0.72280103 0.26229843
-2.841198 0.53869104 0.26701564
-2.6507409 0.33290595 0.28612995
-2.5501027 0.15957914 0.2961866
-2.4451475 0.00013854964 0.30510256
-2.3912535 -0.14936687 0.30862561
-2.2882261 -0.2871151 0.31488538
-2.2166154 -0.42001155 0.31751108
-2.1417832 -0.54621363 0.31934869
-2.0863976 -0.67327523 0.31849268
-1.9840988 -0.78006172 0.32077155
-1.9011492 -0.88816077 0.32047096
-1.8335247 -1.0004497 0.31776276
-1.7804334 -1.1210766 0.3124508
-1.7423223 -1.2554878 0.30409527
-1.6649739 -1.3654325 0.29869312
-1.5975451 -1.4863173 0.29067561
-1.5627514 -1.6476197 0.27623323
-1.4938186 -1.786257 0.26411369
-1.4139371 -1.9231485 0.25125208
-1.3275911 -2.0645905 0.23673743
-1.2305911 -2.2055464 0.22112295
-1.1431532 -2.3885341 0.19893391
-1.021673 -2.5298638 0.18058699
-0.90450722 -2.7182257 0.15470597
-0.7756179 -2.9318566 0.12374917
-0.62260318 -3.1358976 0.09187264
-0.44488785 -3.316843 0.060627777
-0.2478517 -3.5024087 0.026140088
-0.031204645 -3.9336116 -0.045377281
0.2162126 -3.9404891 -0.061678804
0.57354695 -4.8548112 -0.21372765
0.94151235 -5.1620011 -0.28521276
1.2858208 -5.1810985 -0.31809026
1.6052158 -5.0784159 -0.33512458
1.9375099 -5.0090961 -0.36081848
2.2217569 -4.8184862 -0.36846367
2.46454 -4.5649686 -0.3662163
2.7608199 -4.42239 -0.38711581
3.0168691 -4.2154632 -0.39795452
3.2519121 -3.9863145 -0.4062022
3.4638093 -3.7372899 -0.41175172
3.6583226 -3.4782073 -0.41642755
3.8258877 -3.2025237 -0.41800484
3.9855168 -2.9284053 -0.42117548
4.1099091 -2.6365581 -0.41960743
12.648723 8.1172857 -2.2550609
12.408751 9.1201525 -2.28968
12.245799 10.252911 -2.355691
2.8252356 2.6866004 -0.18724734
2.5589006 2.7612624 -0.15348725
2.2567046 2.7665339 -0.10957688
2.026114 2.8311167 -0.084013119
1.8459415 2.9567657 -0.073853083
1.6241777 3.0080667 -0.051733788
1.338696 2.9027867 -0.0052325916
1.108186 2.8642182 0.025141554
0.91894001 2.906064 0.039431524
0.7288779 2.9352105 0.053794432
0.55013114 3.0134864 0.059144866
0.36152726 3.0555301 0.068444259
0.16963883 3.0807848 0.078580342
-0.024082612 3.1178198 0.085627079
-0.22179441 3.1441085 0.092685312
-0.41801628 3.1220434 0.10444419
-0.60951018 3.073874 0.11779886
-0.79551035 3.0101173 0.13135973
-0.98948967 2.9761808 0.13961688
-1.1833056 2.9323182 0.14747268
-1.3993461 2.9258268 0.14921486
-1.5628881 2.8028693 0.16324575
-1.7384026 2.7050445 0.17257279
-1.9004108 2.5862525 0.18275166
-2.0658915 2.471633 0.19072002
-2.2073324 2.3283999 0.20058818
-2.3947015 2.229089 0.20296022
-2.5073321 2.0572612 0.2131786
-2.6193485 1.8883893 0.22147304
-2.7155745 1.7107536 0.22955383
-2.7605257 1.507028 0.24063434
-2.8043542 1.3108046 0.24965656
-2.8245628 1.1111184 0.25874743
-2.8682756 0.92615032 0.26396966
-2.8698206 0.73238868 0.27089989
-2.8805819 0.54627544 0.27536958
-2.6924188 0.33820906 0.29348847
-2.57568 0.16120788 0.30433896
-2.4675391 0.00013145461 0.31306726
-2.418972 -0.15114118 0.31598344
-2.3103561 -0.28996664 0.32229489
-2.2389266 -0.4243457 0.32467738
-2.1670229 -0.55278856 0.32605511
-2.1014996 -0.67831922 0.32590231
-2.003423 -0.78786027 0.32752937
-1.9178922 -0.89621633 0.32725084
-1.850333 -1.0098915 0.32441649
-1.7976927 -1.1322577 0.31902087
-1.7581166 -1.2672341 0.31087402
-1.6814704 -1.3793771 0.30528083
-1.6136187 -1.5017493 0.29726478
-1.5826734 -1.6691873 0.28245005
-1.5137742 -1.8107742 0.27026281
-1.4338924 -1.951054 0.25727522
-1.3444275 -2.0916691 0.24317943
-1.2522011 -2.2453437 0.22632508
-1.1599103 -2.4248452 0.20506103
-1.0520936 -2.6067996 0.18207176
-0.93483669 -2.8114278 0.1546739
-0.7974354 -3.0170493 0.12525785
-0.641509 -3.2349524 0.092135109
-0.46034473 -3.4380422 0.058414422
-0.25450945 -3.6082671 0.026258862
-0.031336911 -4.068397 -0.047814257
0.22704184 -4.1205392 -0.070851929
0.62278873 -5.2613015 -0.25230503
0.9756031 -5.342062 -0.29087943
1.3263413 -5.3392758 -0.3210471
1.6558714 -5.234684 -0.33883622
1.9792588 -5.1137748 -0.3568376
2.2900183 -4.9638085 -0.37274191
2.5555146 -4.7311926 -0.37619051
2.8622811 -4.582931 -0.39763659
3.0837574 -4.3072314 -0.39623383
3.3273163 -4.0772724 -0.40573969
3.5438857 -3.8224037 -0.41156772
3.7710595 -3.584265 -0.42345259
3.9311507 -3.2896585 -0.42236263
4.1469364 -3.0461509 -0.43750757
4.5253177 -2.902266 -0.49064094
12.82188 7.1239891 -2.1581028
12.709564 8.1540308 -2.2067988
12.480274 9.1700268 -2.2426686
12.38564 10.366804 -2.3224983
3.5912583 3.4139254 -0.35339451
2.6591411 2.8684392 -0.16314483
2.3021843 2.8212421 -0.10701516
2.0835898 2.910259 -0.085978799
1.8768793 3.0049961 -0.069005951
1.640928 3.0375996 -0.043312568
1.3615663 2.9507389 -0.00055982213
1.1185435 2.8891289 0.033416823
0.92899609 2.9356077 0.047072172
0.74460983 2.9956856 0.0569488
0.56399524 3.0854585 0.06115615
0.37034878 3.1239495 0.07135205
0.17420878 3.1505692 0.081637874
-0.023899715 3.1891859 0.088874921
-0.22609605 3.2155919 0.096288368
-0.42627779 3.1892626 0.10876206
-0.6240502 3.1509154 0.12102664
-0.82081813 3.108664 0.13210508
-1.0226327 3.0780983 0.14019772
-1.2073981 2.9938469 0.15293156
-1.4261742 2.9834964 0.15546547
-1.5877244 2.8487418 0.17071365
-1.762756 2.7440929 0.18082225
-1.9323001 2.6306581 0.1902871
-2.1062376 2.520793 0.19763051
-2.2634633 2.3883939 0.20595467
-2.4453847 2.2769687 0.20986006
-2.5507016 2.0934553 0.22124478
-2.6618841 1.9195857 0.22991025
-2.7625701 1.7408199 0.23777141
-2.8146107 1.5369442 0.24822231
-2.8426318 1.3290215 0.25863856
-2.8661425 1.1277418 0.26736757
-2.9086003 0.93938649 0.27273118
-2.9057105 0.74171287 0.27988762
-2.919893 0.5538494 0.28405109
-2.7352617 0.34366065 0.30109927
-2.6072059 0.16320959 0.31227019
-2.4855025 0.00012398303 0.32153133
-2.4452829 -0.1528285 0.32366666
-2.3331335 -0.29290092 0.32983771
-2.2598445 -0.42841795 0.33213085
-2.1894381 -0.55864614 0.33318675
-2.117317 -0.68359679 0.3333852
-2.023535 -0.79597265 0.33439097
-1.9350115 -0.90445191 0.33414873
-1.8689075 -1.0203027 0.33106616
-1.8167012 -1.1445472 0.32558864
-1.7741364 -1.2791497 0.31778815
-1.698902 -1.3940977 0.31193858
-1.6305612 -1.518 0.30392823
-1.6032078 -1.6914157 0.28882062
-1.5342371 -1.8359166 0.27658993
-1.4565269 -1.9826282 0.26313552
-1.3612978 -2.1188238 0.24986857
-1.2693964 -2.2772586 0.23281471
-1.1787614 -2.4655752 0.2109907
-1.0776324 -2.6717269 0.18563046
-0.95397204 -2.8710763 0.15940502
-0.82058561 -3.1074429 0.12684456
-0.66245598 -3.3445477 0.091916956
-0.4783282 -3.5785656 0.054772656
-0.26383877 -3.7528205 0.02229928
-0.031379264 -4.1994572 -0.048687898
0.27891952 -5.040966 -0.17819118
0.66292757 -5.5894527 -0.27672327
1.0130265 -5.539887 -0.29763958
1.3667715 -5.496789 -0.32260007
1.6944669 -5.3526177 -0.33525351
2.0209236 -5.2181034 -0.35190031
2.3718374 -5.1383429 -0.38074425
2.6409318 -4.8869724 -0.38276282
2.9208975 -4.6747618 -0.39350557
3.1480858 -4.3953528 -0.39286622
3.4170671 -4.1857376 -0.40813264
3.6633282 -3.9499061 -0.42032751
6.1601624 -5.8531847 -0.97385824
6.9100871 -5.7807703 -1.0845933
4.5453753 -3.3378847 -0.50460434
4.6857562 -3.0043526 -0.50308257
4.7967024 -2.6632478 -0.49896199
12.858188 7.1422153 -2.1057384
12.764031 8.1866665 -2.1566551
12.537711 9.2095261 -2.1919465
12.464154 10.429312 -2.27421
12.280183 11.67001 -2.3491573
2.7704515 2.9874792 -0.17430614
2.3457017 2.8735063 -0.10337321
2.1346672 2.9804041 -0.085396163
1.9092876 3.0555375 -0.064129286
1.657714 3.0671692 -0.034628578
1.3845922 2.9989748 0.0044893115
1.1294596 2.9154491 0.041684508
0.94007355 2.9683309 0.054483715
0.76010144 3.0550785 0.060757376
0.57609195 3.1475894 0.06511233
0.37896356 3.1903608 0.075078078
0.17910597 3.225667 0.084569499
-0.023762094 3.2713091 0.091348924
-0.23085593 3.2940841 0.099611536
-0.43482867 3.258884 0.11333603
-0.63898826 3.2301512 0.12462577
-0.84886158 3.2177575 0.13245828
-1.0551664 3.1783283 0.14182456
-1.240255 3.0771966 0.15648302
-1.4446779 3.0238035 0.16415355
-1.6120365 2.8937159 0.1786994
-1.7926466 2.7917974 0.18847524
-1.9623656 2.6726139 0.19853728
-2.1372111 2.5587664 0.20633447
-2.2978749 2.4255021 0.21467069
-2.4742842 2.3045881 0.21978201
-2.5847652 2.12203 0.23073131
-2.7019083 1.948988 0.23901166
-2.8230934 1.7794287 0.24521405
-2.8617189 1.5630648 0.25689664
-2.8707092 1.3424771 0.26878244
-2.9086983 1.1447573 0.27627185
-2.9517462 0.95354015 0.28162482
-2.9513555 0.75353193 0.28847468
-2.9656141 0.56264263 0.29260623
-2.776088 0.3488611 0.30919513
-2.6348791 0.16497077 0.32071811
-2.5012183 0.00011628124 0.33029446
-2.4728909 -0.15459786 0.33147439
-2.3632967 -0.29676419 0.33705708
-2.2806547 -0.43247175 0.33976448
-2.2086637 -0.56369263 0.34073552
-2.1335108 -0.68899852 0.34097573
-2.0460765 -0.80504513 0.34123918
-1.9585309 -0.91568398 0.34067968
-1.8878686 -1.0309306 0.33785427
-1.8362925 -1.1572107 0.33228531
-1.7905158 -1.2913314 0.32482806
-1.7168585 -1.4092579 0.31872416
-1.648819 -1.535486 0.31062889
-1.623508 -1.7134117 0.29546246
-1.5559714 -1.8625989 0.28299823
-1.4844487 -2.0214272 0.26848003
-1.379683 -2.1483603 0.25654462
-1.2876413 -2.3110881 0.23937932
-1.2030411 -2.5177102 0.21599336
-1.0971115 -2.7217016 0.19144206
-0.97412491 -2.933877 0.16427641
-0.85775125 -3.2511222 0.12299759
-0.68933934 -3.48441 0.089020051
-0.49824944 -3.7341015 0.050454937
-0.29842457 -4.2587576 -0.025057942
-0.031733524 -4.3819218 -0.05502566
0.31701842 -5.705761 -0.24479459
0.68240982 -5.7424984 -0.27487123
1.0571532 -5.773819 -0.30784288
1.4113176 -5.6705394 -0.32521698
1.732492 -5.4685712 -0.33037955
2.0690169 -5.3388877 -0.34868255
2.4291747 -5.2596784 -0.37832198
2.7151661 -5.0219183 -0.38424668
2.9781618 -4.7643504 -0.38808793
4.9638419 -6.9277849 -0.87309307
5.3294206 -6.5259156 -0.88202006
5.7164288 -6.1615481 -0.90187258
6.2104902 -5.899148 -0.95100373
6.949482 -5.8120012 -1.0567254
4.6655712 -3.425185 -0.50759643
4.7997408 -3.0766075 -0.5042643
4.9230042 -2.7326677 -0.50233418
12.893209 7.1597166 -2.0528131
12.814057 8.2164364 -2.1051157
12.588169 9.2438765 -2.1392171
12.526378 10.478154 -2.2215884
12.607366 11.977049 -2.3542795
3.0738769 3.3135297 -0.22975457
2.3918211 2.9289181 -0.099834219
2.1816211 3.0447381 -0.083008386
1.9446594 3.1107748 -0.059619367
1.6745014 3.0967128 -0.025670631
1.4057472 3.0431075 0.010624064
1.1422192 2.9464912 0.049456291
0.9522686 3.0045302 0.061662987
0.77684331 3.1193781 0.064370431
0.58820194 3.2096334 0.069585301
0.38805389 3.2605083 0.078856111
0.18457668 3.3104291 0.086896069
-0.023665737 3.3646755 0.093119159
-0.23613085 3.3804672 0.10263521
-0.44385803 3.33234 0.11803088
-0.65168548 3.2982333 0.13011996
-0.87237191 3.3098481 0.13558298
-1.0730976 3.2346871 0.14905283
-1.2728758 3.1600618 0.16080241
-1.4647378 3.0674119 0.17284532
-1.6373978 2.9406166 0.18688992
-1.8128946 2.8245189 0.19818053
-1.9967782 2.7205245 0.20655937
-2.1785619 2.609195 0.21406713
-2.3246009 2.454519 0.22470082
-2.5046811 2.3336196 0.22986279
-2.6110866 2.1442635 0.24134088
-2.7510548 1.9849885 0.2476739
-2.8735189 1.8116916 0.25409356
-2.9192305 1.5948825 0.26516521
-2.9142318 1.3631639 0.27800119
-2.968441 1.1685466 0.28429502
-2.9970362 0.96839309 0.29073328
-3.0036025 0.76704222 0.29699385
-3.0071125 0.57063842 0.30181333
-2.8135164 0.35363653 0.31784162
-2.6567636 0.16637006 0.32976112
-2.5228815 0.00010872521 0.33880645
-2.4903219 -0.15573183 0.34015867
-2.3885067 -0.30000728 0.34484309
-2.2987535 -0.43601337 0.3477495
-2.2291939 -0.56907463 0.34835675
-2.1521502 -0.69519287 0.348533
-2.0737169 -0.81612885 0.34790927
-1.9836504 -0.92767036 0.34729704
-1.9080673 -1.0422401 0.34471694
-1.8572328 -1.1707317 0.3390528
-1.8085898 -1.3047428 0.33187494
-1.7352097 -1.4247514 0.32565883
-1.672363 -1.5579075 0.3169536
-1.6446211 -1.736281 0.30224577
-1.5826677 -1.8952425 0.28901944
-1.5061046 -2.0517206 0.27513972
-1.399799 -2.1806188 0.26320449
-1.3146586 -2.360702 0.24454415
-1.2267193 -2.5686412 0.22158669
-1.12087 -2.7823613 0.1965175
-1.0049769 -3.029017 0.16611038
-0.86945808 -3.2984786 0.131108
-0.71862036 -3.636739 0.085840732
-0.52118862 -3.9128375 0.044689815
-0.31332627 -4.4862037 -0.035145372
-0.04094138 -5.8390746 -0.21626993
0.32795253 -5.8781652 -0.24377389
0.70172441 -5.8935404 -0.2715247
1.096694 -5.9821391 -0.31266448
1.4594743 -5.8584528 -0.32840368
1.8030583 -5.686986 -0.33965981
2.1489954 -5.5417433 -0.35712078
2.4725811 -5.3507347 -0.36990586
4.1835351 -7.7340569 -0.82653803
4.6126418 -7.3759403 -0.83999866
5.0445533 -7.0376639 -0.86012083
5.4414725 -6.6607161 -0.87603378
5.8069854 -6.2570548 -0.88931185
6.2731242 -5.9567685 -0.93041235
6.9899354 -5.8440986 -1.0286931
7.8890452 -5.7900357 -1.1639141
4.9339194 -3.1617644 -0.50848395
5.0467572 -2.8006375 -0.50403523
12.927268 7.1766753 -1.9994079
12.859521 8.2432642 -2.0522213
12.634086 9.2748728 -2.0850856
12.585452 10.524334 -2.1676798
12.896976 12.248205 -2.3474782
3.1170886 3.3589513 -0.22136433
2.4443052 2.9920797 -0.097267881
2.2294497 3.1102412 -0.080203682
1.9838599 3.1720855 -0.055650856
1.6921345 3.1277905 -0.016696805
1.4249517 3.0829706 0.017816082
1.1587129 2.9871197 0.056070082
0.96853876 3.0535214 0.067333683
0.79585981 3.1926796 0.067293599
0.60161662 3.2786286 0.073658764
0.39790547 3.3367658 0.082434185
0.19032596 3.3994675 0.08938437
-0.023542931 3.4604733 0.09535072
-0.24179308 3.4729857 0.10565349
-0.4535841 3.4112914 0.12270925
-0.66913939 3.390579 0.13354525
-0.89080387 3.3828194 0.14149326
-1.0986446 3.314101 0.15434982
-1.3002002 3.2298717 0.16717887
-1.485562 3.1126683 0.18175358
-1.6586659 2.9802067 0.19625303
-1.8367352 2.8628678 0.2076207
-2.022332 2.7563975 0.21629347
-2.219671 2.6593702 0.22234903
-2.3942533 2.5288956 0.23020981
-2.5309293 2.3588023 0.24070545
-2.661669 2.1864393 0.24994841
-2.7905703 2.0140579 0.25765935
-2.9379327 1.8527932 0.26232019
-2.9675307 1.6216825 0.27465859
-2.9681108 1.3887066 0.28686285
-3.0292728 1.192776 0.29275793
-3.0460885 0.98446882 0.29997736
-3.0738528 0.78515714 0.3048023
-3.0600033 0.58079988 0.3106555
-2.8599131 0.35954142 0.32624698
-2.6811056 0.16792378 0.33883476
-2.5424421 0.00010093469 0.34762052
-2.506609 -0.15679488 0.3490546
-2.4095917 -0.30273381 0.35308608
-2.3207297 -0.44029236 0.35564345
-2.2486355 -0.57418138 0.35621959
-2.1711624 -0.70151097 0.35622489
-2.0975223 -0.82570863 0.3550837
-2.0081029 -0.9393509 0.35418665
-1.9299816 -1.0544932 0.35163426
-1.8788894 -1.1847116 0.34596208
-1.8268658 -1.3183075 0.33908528
-1.7545444 -1.4410619 0.33269274
-1.6968615 -1.5812327 0.32343897
-1.6648461 -1.7582278 0.30937961
-1.6098222 -1.9284586 0.29531825
-1.5255193 -2.0789838 0.28241563
-1.4254369 -2.2215104 0.26927277
-1.3352675 -2.39885 0.25134966
-1.2528245 -2.624712 0.22709517
-1.1514714 -2.8600926 0.20032525
-1.0302222 -3.1073852 0.17052171
-0.9009102 -3.4208963 0.13152377
-0.74014646 -3.7501388 0.088175155
-0.56337661 -4.2369628 0.024031123
-0.3287915 -4.7232547 -0.044519689
-0.046222579 -6.8161583 -0.30890217
0.35972026 -6.421032 -0.28676596
0.73154563 -6.1320658 -0.27806246
1.130617 -6.1593246 -0.31168911
1.5078982 -6.047081 -0.33013883
1.8916645 -5.9619255 -0.35521373
3.310473 -8.531497 -0.78288263
2.5295608 -5.4710474 -0.36531323
4.2456846 -7.8451715 -0.8098349
4.6863923 -7.4906363 -0.82539654
5.1200695 -7.1402111 -0.84468293
5.5450644 -6.7850676 -0.86654568
5.914309 -6.3705583 -0.87960196
6.3478746 -6.0258541 -0.91183496
7.0346551 -5.8797431 -1.0011644
7.9250636 -5.8148327 -1.1315147
9.5259886 -6.1028214 -1.4010626
5.1426187 -2.8530977 -0.49917752
15.200248 7.2196283 -2.305758
12.962372 7.1942043 -1.9459146
12.902377 8.2684069 -1.9984169
12.676699 9.3034277 -2.0298686
12.653769 10.578212 -2.1150949
13.243021 12.572765 -2.349618
3.1642954 3.4086452 -0.21337061
2.507813 3.0686839 -0.096660681
2.2860503 3.1879239 -0.078964405
2.0289164 3.2427015 -0.052688446
1.7107279 3.1606119 -0.0077198274
1.4427874 3.1198301 0.025816513
1.1811594 3.0430322 0.060827062
0.99661732 3.1396377 0.068311237
0.81758898 3.2767124 0.069410957
0.61634463 3.3545954 0.077414982
0.40811816 3.4157488 0.086295992
0.19577231 3.4823861 0.093299866
-0.023322923 3.5481939 0.099259563
-0.24733743 3.56442 0.10953087
-0.46263927 3.4854641 0.12853248
-0.68474025 3.473743 0.13867638
-0.91819209 3.4899635 0.14452448
-1.1350558 3.4264264 0.1570193
-1.3224516 3.2871568 0.17539182
-1.5118605 3.1694489 0.18993393
-1.6773802 3.0152431 0.20642039
-1.8610325 2.9019608 0.21735117
-2.0578909 2.8059399 0.2250423
-2.2561924 2.7040823 0.23169309
-2.4358537 2.5736818 0.23952843
-2.5754404 2.4010267 0.25006807
-2.7158427 2.2315907 0.25876281
-2.8645155 2.0679996 0.26521605
-3.014214 1.9014027 0.27025232
-3.0293455 1.6558834 0.2836293
-3.0424209 1.4238232 0.29482409
-3.0795269 1.212851 0.30242339
-3.0893812 0.99868995 0.30998993
-3.1294961 0.79954821 0.31405866
-3.104918 0.58945155 0.32039103
-2.9265308 0.36799133 0.33388007
-2.711457 0.16985449 0.34776902
-2.5631847 9.305025e-05 0.35652789
-2.5279953 -0.15817758 0.35779747
-2.4334211 -0.30580664 0.36134541
-2.3410814 -0.44426522 0.36381337
-2.2692943 -0.57960159 0.36417279
-2.1911626 -0.70815146 0.36401799
-2.119051 -0.8343969 0.36261266
-2.0329621 -0.95122784 0.36126661
-1.9525466 -1.0671084 0.35870671
-1.9023281 -1.1998234 0.35294092
-1.8456317 -1.3322339 0.3464382
-1.7751008 -1.4583861 0.33981961
-1.7289912 -1.6116861 0.32944205
-1.6855438 -1.7806889 0.31670091
-1.6415265 -1.9671512 0.30140844
-1.5439101 -2.1048722 0.29009768
-1.4540119 -2.2670169 0.2752704
-1.3774449 -2.4758015 0.25465754
-1.2798476 -2.6827669 0.23290104
-1.1809651 -2.9351676 0.20506769
-1.0884092 -3.2853017 0.16545406
-0.9477306 -3.6019449 0.12687549
-0.7618624 -3.8647718 0.09130121
-1.4517493 -10.937239 -0.68462789
-0.51470393 -7.4185939 -0.325562
-0.047062039 -7.1839156 -0.3238517
0.38611311 -6.8639007 -0.31356052
0.78732258 -6.5868149 -0.30924457
1.185611 -6.4507022 -0.32385713
1.5627369 -6.2610517 -0.33369282
1.9317784 -6.0837312 -0.34713516
3.3424392 -8.6084146 -0.75746626
3.8501248 -8.3226728 -0.77959144
4.3103786 -7.9608779 -0.79286486
4.756958 -7.6001449 -0.80881602
5.1936655 -7.2400017 -0.8277272
5.6418967 -6.9010601 -0.85412824
6.017828 -6.479888 -0.86776739
6.4256358 -6.097754 -0.89309448
7.0860796 -5.9209685 -0.97457916
7.9621997 -5.8404355 -1.0989994
9.6592045 -6.186502 -1.3809981
5.2625532 -2.9188833 -0.49800602
5.4455385 -2.5845704 -0.50959682
15.338313 7.2832761 -2.2622306
13.002579 7.2145548 -1.8930662
12.943358 8.2923326 -1.943879
12.717061 9.3303137 -1.9738203
12.808536 10.704303 -2.0792348
13.591501 12.899426 -2.3484352
12.976536 13.973776 -2.3479483
2.6233168 3.2088325 -0.10728566
2.3622272 3.2928326 -0.081768535
2.0889475 3.3371782 -0.053012118
1.7314661 3.1973617 0.00094311842
1.4601419 3.1556089 0.034301825
1.2195735 3.1399841 0.060317665
1.0432163 3.2839222 0.062258143
0.84023458 3.3642542 0.071774535
0.63167328 3.4336329 0.081414483
0.41805619 3.4921308 0.091098152
0.20081906 3.5575473 0.098753802
-0.022974575 3.6220498 0.10537956
-0.25242239 3.6498213 0.11477668
-0.47263396 3.5669866 0.13419905
-0.71331322 3.6229913 0.13787849
-0.93589449 3.5604532 0.15202156
-1.1499788 3.4740012 0.16684163
-1.3490181 3.3552446 0.18307647
-1.5310106 3.2112958 0.20001054
-1.6987593 3.055105 0.21645929
-1.8878089 2.9449544 0.22709005
-2.0899994 2.8508141 0.23471464
-2.2889669 2.7443335 0.24192019
-2.4747405 2.6156297 0.24960949
-2.6334839 2.4558973 0.25868079
-2.7581589 2.2670224 0.26913279
-2.9137394 2.1041188 0.27540812
-3.0613301 1.9316353 0.2809926
-3.0763946 1.6820287 0.29415295
-3.0946898 1.4486395 0.30483183
-3.1208827 1.2294301 0.31305608
-3.1329682 1.0130129 0.32035214
-3.1774008 0.81196815 0.32420415
-3.1600931 0.60005522 0.32994244
-2.9737644 0.37400681 0.34307337
-2.7673695 0.17338739 0.35561553
-2.5901423 8.5225336e-05 0.36528102
-2.5526478 -0.15976548 0.36654395
-2.4620249 -0.30948117 0.36954653
-2.3601344 -0.44799355 0.37222213
-2.2930856 -0.58582473 0.37212458
-2.2126939 -0.71529025 0.37189335
-2.1441464 -0.84449428 0.37011328
-2.0541592 -0.96139693 0.36880234
-1.9762845 -1.0803716 0.36590779
-1.9286629 -1.2167706 0.35993367
-1.8656157 -1.3470478 0.35388398
-1.795202 -1.4753467 0.34720114
-1.7620386 -1.6430148 0.33571291
-1.7194324 -1.8171053 0.32290819
-1.665473 -1.9965718 0.30878767
-1.5697826 -2.140985 0.29706618
-1.4880114 -2.321023 0.2808961
-1.4216814 -2.556529 0.25830981
-1.306653 -2.7404275 0.23925683
-1.2370337 -3.0764251 0.20408913
-1.1172386 -3.3748002 0.17051305
-0.98990721 -3.7656572 0.12544464
-2.1947374 -11.146748 -0.63344246
-1.4609724 -11.026043 -0.6498574
-0.75230211 -10.87939 -0.66714972
-0.047467671 -7.5098333 -0.3312327
0.40686116 -7.203217 -0.32495108
0.82903033 -6.922328 -0.32259625
1.2341946 -6.7065067 -0.32925701
1.6350179 -6.5444322 -0.34443834
2.0038822 -6.3060212 -0.35160366
3.3747652 -8.686162 -0.73150682
3.8969855 -8.4193697 -0.75729042
4.3747091 -8.0758028 -0.77471679
4.8319511 -7.716629 -0.79236799
5.2594399 -7.3288145 -0.80782729
5.7196121 -6.9935946 -0.83602709
6.1252193 -6.5933132 -0.85557693
6.5056496 -6.1717453 -0.8739807
7.1492853 -5.9720116 -0.94986099
8.001791 -5.8678241 -1.0666132
9.8028669 -6.2768269 -1.3616569
10.48105 -5.8118305 -1.4389396
10.862164 -5.1541362 -1.4649589
15.505379 7.3606572 -2.2225888
13.056019 7.2422347 -1.8422501
12.984644 8.3164415 -1.8890361
12.757406 9.3571701 -1.9173989
14.534573 12.14305 -2.3498631
13.969167 13.253563 -2.3493497
13.341448 14.36178 -2.3483789
2.7455666 3.3571265 -0.11795758
2.444849 3.4066381 -0.085065119
2.1604705 3.4499226 -0.055383079
1.7561853 3.2414234 0.0088330982
1.4775099 3.1913769 0.043104477
1.2592491 3.2400577 0.060217269
1.0766867 3.3866899 0.062776394
0.8629669 3.4519758 0.074837759
0.64695638 3.5122216 0.086109459
0.42767945 3.5655925 0.096845388
0.20547284 3.6251631 0.10563008
-0.022547591 3.6886048 0.11285565
-0.25717744 3.7310073 0.12113392
-0.4947651 3.7405493 0.13145341
-0.73023134 3.7133279 0.14394282
-0.95123458 3.6220744 0.16093007
-1.1649719 3.5218573 0.17703772
-1.3797829 3.4338646 0.19039644
-1.5582778 3.2702219 0.20893648
-1.7250619 3.103863 0.22607645
-1.9161869 2.9904835 0.23701265
-2.1330116 2.9106014 0.24351591
-2.3302376 2.7948036 0.25165653
-2.5286527 2.673491 0.25871399
-2.7163241 2.5339334 0.26579255
-2.8221815 2.3203211 0.27823922
-2.965863 2.1423526 0.2858797
-3.1140494 1.9654204 0.29180729
-3.1616743 1.7290951 0.3027232
-3.1606014 1.4798557 0.31450298
-3.1733801 1.2504071 0.32342762
-3.2103181 1.0382618 0.3292883
-3.2347519 0.82680815 0.33426362
-3.2075779 0.60920292 0.34032765
-3.0115452 0.37883562 0.35311049
-2.8008523 0.17551598 0.36499226
-2.6228006 7.7381301e-05 0.37397859
-2.5761373 -0.16128147 0.37554702
-2.4910328 -0.31320843 0.37796086
-2.3890007 -0.45358697 0.3802973
-2.3238649 -0.59383667 0.37991428
-2.2344913 -0.72251874 0.37993813
-2.175324 -0.85699302 0.37748957
-2.075176 -0.9714871 0.37653875
-1.99777 -1.0924102 0.37347049
-1.9509057 -1.231145 0.36745596
-1.8882924 -1.3638148 0.36133242
-1.8121282 -1.4897072 0.35504809
-1.7914211 -1.670945 0.34266925
-1.7678127 -1.8688666 0.32810304
-1.6880034 -2.0243156 0.31662369
-1.6001252 -2.1832252 0.30384058
-1.5189031 -2.3702266 0.28746331
-1.444747 -2.5992451 0.26611817
-1.3681817 -2.8710141 0.23950481
-1.2808968 -3.1874847 0.20709899
-1.181234 -3.5707331 0.16637927
-3.1551907 -12.013412 -0.6453895
-2.2333198 -11.356262 -0.60857141
-1.4688976 -11.105345 -0.61341953
-0.75878131 -11.009862 -0.63708568
-0.065408669 -10.739557 -0.64582258
0.42365181 -7.4699965 -0.32560894
0.86378044 -7.1985621 -0.32644099
1.2734524 -6.9110508 -0.32644686
1.7084764 -6.8319855 -0.35336801
2.8877549 -9.080595 -0.68816203
3.4093316 -8.7695723 -0.70565838
3.9402318 -8.5081568 -0.73298973
4.4376502 -8.1880531 -0.7551114
4.9107904 -7.8391528 -0.77580094
5.3225646 -7.4138665 -0.78639811
5.7876205 -7.0741973 -0.81474918
6.2334185 -6.7075319 -0.84230244
6.5979519 -6.2573442 -0.85652024
7.2313442 -6.0387678 -0.92821974
8.044652 -5.8975945 -1.0344748
9.9033661 -6.3394728 -1.3329662
10.545099 -5.8458385 -1.4017996
10.937284 -5.1884913 -1.4293611
17.315556 0.0025885501 -2.2809193
17.704195 1.1249671 -2.3459997
17.32279 2.2076876 -2.2944515
17.563694 3.3788924 -2.3506808
16.654875 7.9042497 -2.3495696
14.538287 8.0622616 -2.0406675
13.028291 8.3420477 -1.8342525
12.799353 9.3851871 -1.8609036
14.922413 12.463248 -2.3469625
14.352713 13.61305 -2.3472517
13.715281 14.759118 -2.346359
2.8080065 3.4322054 -0.11399511
2.5162678 3.5047479 -0.084620245
2.2121623 3.5309143 -0.051726181
1.78526 3.2934773 0.01595006
1.4972842 3.2323003 0.051507562
1.2928467 3.3243744 0.063047461
1.1051838 3.4736698 0.066129521
0.88563341 3.5392671 0.078675508
0.66242594 3.5916209 0.091351144
0.43709013 3.637001 0.10340785
0.20992537 3.6886935 0.11347552
-0.022083985 3.7541447 0.12096583
-0.2619921 3.813606 0.12800306
-0.50974458 3.8605578 0.13516589
-0.74123484 3.7737668 0.15348691
-0.96493685 3.6775651 0.17089534
-1.1900338 3.600244 0.18496415
-1.4089584 3.5086229 0.19872332
-1.5885185 3.3354535 0.21784917
-1.7688931 3.1842201 0.23349331
-1.9477454 3.0410168 0.24694958
-2.154448 2.9409821 0.25535363
-2.381372 2.8571432 0.26092285
-2.57355 2.7218561 0.26925752
-2.7568209 2.5725052 0.27723223
-2.8969994 2.382529 0.28721783
-2.9984686 2.1665051 0.29818258
-3.1703398 2.001478 0.30290192
-3.2452092 1.775231 0.31217226
-3.2277057 1.5116459 0.3246932
-3.2238824 1.2706078 0.33435562
-3.2588286 1.0541931 0.34028882
-3.2968988 0.84288085 0.3445726
-3.2546949 0.61828458 0.35111898
-3.0623918 0.38531032 0.36287007
-2.8337977 0.17761162 0.37466389
-2.6604521 6.9441332e-05 0.38271976
-2.6006281 -0.16286103 0.38469705
-2.5222178 -0.31721139 0.38651365
-2.4278932 -0.46108729 0.38814804
-2.3503752 -0.60076153 0.38816351
-2.2555304 -0.72950548 0.38820663
-2.2060292 -0.86931199 0.38516062
-2.0953016 -0.98116511 0.38451281
-2.0179067 -1.1037174 0.38131133
-1.9709285 -1.2441261 0.37533203
-1.9088745 -1.3790785 0.36915123
-1.8364263 -1.5101388 0.36252224
-1.8172621 -1.6955887 0.35024166
-1.7987121 -1.9021765 0.33546102
-1.715327 -2.0578296 0.32425445
-1.6298882 -2.2247074 0.31109634
-1.553077 -2.4245961 0.2940571
-1.4818491 -2.6672668 0.27215412
-1.4124153 -2.9654293 0.24402781
-1.3357064 -3.3259392 0.20866324
-4.4243469 -13.38413 -0.69429922
-3.2572105 -12.413133 -0.63231391
-2.2795293 -11.605107 -0.58567643
-1.4767008 -11.184004 -0.57628155
-0.76574403 -11.148252 -0.60676354
-0.063709214 -10.871594 -0.61648792
0.59601575 -10.466641 -0.6149205
0.89944464 -7.4813347 -0.32878605
1.3257879 -7.1859589 -0.33010179
1.7651918 -7.0521035 -0.35178119
2.9176352 -9.1676073 -0.66104501
3.4461195 -8.8585882 -0.67984009
3.9789832 -8.5871458 -0.70652872
4.497015 -8.2936001 -0.73348588
4.9814 -7.9484401 -0.75598323
5.3912134 -7.5065441 -0.76541483
5.8562431 -7.1554928 -0.79276103
6.3327117 -6.8120933 -0.82589674
6.715507 -6.3668318 -0.84310025
7.3150754 -6.1068802 -0.90605444
8.0931816 -5.9315023 -1.0029807
9.9756632 -6.3840375 -1.2982489
10.601008 -5.8753171 -1.3626599
11.004698 -5.2191739 -1.3917881
6.7807302 -1.3024178 -0.60277998
9.7956333 -1.2454495 -1.0823319
15.361218 -0.97148919 -1.9710268
17.563597 0.0025644572 -2.2494476
18.133347 1.151906 -2.3412189
17.425964 2.2202566 -2.2397776
18.002584 3.4624448 -2.347492
17.833366 4.6160135 -2.3452632
17.639099 5.7777939 -2.3466218
17.382093 6.9383168 -2.3457093
17.099529 8.1131315 -2.3488295
14.671265 8.1337929 -1.9958236
13.077463 8.3711767 -1.780046
12.844201 9.4153137 -1.8045435
15.334924 12.803847 -2.344583
14.755542 13.990587 -2.3446305
14.1035 15.171656 -2.3428349
2.8514152 3.4839756 -0.10520554
2.5843742 3.5981677 -0.082447767
2.2496524 3.5891767 -0.04385915
1.8205137 3.356874 0.021925995
1.5209593 3.2815945 0.059147362
1.3318096 3.4223707 0.064862616
1.1339262 3.5612864 0.070136152
0.90918916 3.6299422 0.082844086
0.67844576 3.6737978 0.09693367
0.44674852 3.7101912 0.11035807
0.21455611 3.7548294 0.12156677
-0.021610323 3.823245 0.12925418
-0.26781809 3.9115314 0.13409947
-0.51754367 3.9265118 0.14473517
-0.75049061 3.8254414 0.16429155
-0.97647882 3.724915 0.18201317
-1.2152873 3.6793258 0.193491
-1.4257492 3.5526133 0.21020223
-1.6077899 3.3777101 0.2291798
-1.801945 3.2452395 0.24317294
-1.9844373 3.099611 0.25673193
-2.1897969 2.9903853 0.26600283
-2.4162061 2.8999639 0.27236754
-2.6253922 2.7776005 0.27974585
-2.80176 2.6152475 0.28878522
-2.9814055 2.452661 0.29631788
-3.0806298 2.2264867 0.30771959
-3.2225475 2.0349762 0.31476703
-3.3051035 1.808455 0.32364541
-3.2964454 1.5442176 0.33539659
-3.2922068 1.2978439 0.34488118
-3.3354692 1.0792336 0.35043889
-3.3738995 0.86275905 0.35475734
-3.3223374 0.63127029 0.3614409
-3.1254625 0.39332604 0.37254331
-2.8701866 0.17992388 0.38446394
-2.6873558 6.099703e-05 0.39219564
-2.6277199 -0.1646044 0.39394149
-2.5691051 -0.32319179 0.39467669
-2.4508011 -0.46555495 0.39698926
-2.3758359 -0.60742146 0.39668
-2.2778141 -0.73689848 0.39659852
-2.2360642 -0.88137305 0.39313012
-2.1146939 -0.99050468 0.39270496
-2.0407414 -1.1165071 0.38919243
-1.989545 -1.2562263 0.3834832
-1.9299288 -1.3946921 0.37714654
-1.8631201 -1.5325532 0.37008426
-1.8421807 -1.7193872 0.35817125
-1.8195528 -1.924868 0.34404421
-1.7439686 -2.0929499 0.3321037
-1.6612189 -2.268363 0.31858775
-1.5878031 -2.4798746 0.30109227
-1.5294619 -2.754281 0.27727419
-1.465209 -3.0779283 0.24790305
-1.3952789 -3.4764328 0.21041399
-4.7467918 -14.370137 -0.72193593
-3.4358065 -13.105678 -0.6414457
-2.3113229 -11.78107 -0.55423611
-1.4870628 -11.282353 -0.54032624
-0.7731964 -11.294726 -0.57610452
-0.06179658 -10.976565 -0.58342713
0.603432 -10.554151 -0.58200461
1.2235366 -10.157468 -0.58435696
1.8066647 -9.7799873 -0.58998948
2.4013574 -9.5845737 -0.61813873
2.9468122 -9.2522802 -0.63291091
3.4839344 -8.9501305 -0.65358281
4.0149684 -8.6600838 -0.67854702
4.5522699 -8.39147 -0.70979172
5.0416551 -8.0411177 -0.73258579
5.4769144 -7.6228819 -0.74738836
5.9353728 -7.2495627 -0.77217197
6.4276814 -6.9119363 -0.8074528
6.8566604 -6.4986157 -0.83297622
7.3854289 -6.1637878 -0.88052607
8.1510563 -5.9722385 -0.97270995
10.035714 -6.4207425 -1.2607123
10.652492 -5.9023285 -1.3222704
11.067938 -5.2478628 -1.352936
11.762112 -4.6913886 -1.4336684
13.207639 -4.3222361 -1.6388698
6.7265935 -1.7391088 -0.57618803
7.9462066 -1.5259455 -0.75947624
11.880978 -1.5102752 -1.370562
15.729272 -0.99458909 -1.9662439
17.862074 0.0025458536 -2.2236855
18.618288 1.1823725 -2.3414965
18.577147 2.366312 -2.3447776
18.472816 3.5519812 -2.3455381
18.295191 4.734354 -2.3422673
18.100588 5.9274459 -2.3438203
17.85936 7.1269798 -2.3458319
17.561571 8.3301516 -2.3469536
14.746761 8.1734247 -1.9402698
13.145517 8.4123726 -1.7286015
12.896744 9.4510612 -1.7491111
15.748289 13.144951 -2.3380456
15.197079 14.40457 -2.3448029
14.52177 15.616225 -2.3406184
2.8897049 3.5294554 -0.094819188
2.6497428 3.6877024 -0.078743443
2.2795954 3.6353528 -0.033666737
1.8633611 3.4342039 0.026558895
1.5544056 3.3519049 0.064491652
1.3997015 3.5945327 0.058408093
1.1682369 3.6662443 0.072858155
0.93527818 3.7305493 0.086659871
0.69558883 3.7618403 0.10256462
0.45729604 3.7904687 0.1171817
0.22055337 3.8442514 0.12793353
-0.021098016 3.8910866 0.13821149
-0.27142724 3.9776313 0.14382927
-0.5230552 3.9753118 0.15631846
-0.76182973 3.887871 0.17461629
-0.99287421 3.7908816 0.19200899
-1.2437994 3.7683957 0.20189184
-1.4372466 3.5834599 0.22307482
-1.6278342 3.4216361 0.24075699
-1.819464 3.2783291 0.25549185
-2.0222178 3.1599557 0.26693949
-2.2401552 3.0603309 0.27563378
-2.4642658 2.9586937 0.28308982
-2.6851027 2.8417091 0.29022756
-2.8719957 2.6816361 0.29906514
-3.031554 2.4946437 0.30845806
-3.154213 2.2803004 0.31856242
-3.3145127 2.0936053 0.32503134
-3.372685 1.8459032 0.33529258
-3.3656516 1.577024 0.34668827
-3.3753171 1.3309232 0.3553628
-3.4233484 1.1079229 0.36077785
-3.4432948 0.88070083 0.3658756
-3.3871183 0.64371765 0.37242326
-3.2234821 0.40574414 0.38144144
-2.9275768 0.18355368 0.39379677
-2.7189984 5.245678e-05 0.40171862
-2.6646876 -0.1669676 0.40304685
-2.6057854 -0.3278909 0.40359715
-2.4754679 -0.47035906 0.40595329
-2.4036779 -0.6146937 0.40531582
-2.3058715 -0.74616349 0.40494284
-2.2652326 -0.89309865 0.40139821
-2.1347659 -1.0001677 0.4010402
-2.0657556 -1.1304961 0.39717636
-2.0143106 -1.272217 0.39148277
-1.9509659 -1.4103024 0.38535422
-1.8903494 -1.5554218 0.37789136
-1.8680801 -1.7441165 0.36630711
-1.8388653 -1.9459575 0.35299698
-1.7744163 -2.1302638 0.34015232
-1.7047697 -2.3287458 0.32525492
-1.6224471 -2.5350728 0.30865639
-1.5695328 -2.8277907 0.2842178
-1.5019906 -3.156894 0.25536984
-3.7016065 -14.132421 -0.67259568
-2.4084346 -12.290788 -0.54987454
-1.5080786 -11.462023 -0.51075029
-0.78307182 -11.477708 -0.54760545
-0.059876263 -11.089064 -0.55024117
0.61103427 -10.644199 -0.54863876
1.2390223 -10.26628 -0.5546428
1.8243011 -9.8629761 -0.55913442
2.4219036 -9.6574507 -0.58681601
2.9747684 -9.3329945 -0.60359782
3.5205383 -9.0384474 -0.6261375
4.0504084 -8.7317648 -0.64975637
4.6026883 -8.4803343 -0.68394834
5.0958467 -8.1240492 -0.70686394
5.5710344 -7.7508426 -0.7300579
6.0309901 -7.3636956 -0.75402457
6.5182252 -7.0069537 -0.78702873
6.987987 -6.621007 -0.81944257
7.4536929 -6.2189183 -0.85389799
8.2211342 -6.0218911 -0.94402385
10.091259 -6.4545455 -1.2218548
10.7013 -5.927844 -1.280984
11.128408 -5.2752242 -1.31309
12.047364 -4.8040094 -1.4279364
13.354483 -4.3692737 -1.6056339
6.7934194 -1.7559897 -0.55840641
8.2912111 -1.5918516 -0.77989924
15.676196 -1.992301 -1.9039608
16.078779 -1.0165085 -1.9556646
18.04813 0.0025095695 -2.1788492
19.11121 1.213328 -2.3390515
19.083628 2.430192 -2.3443079
18.969648 3.6465855 -2.3437231
18.78871 4.8608336 -2.3402288
18.591362 6.0866089 -2.341593
18.351412 7.321444 -2.344116
18.045801 8.5575781 -2.3444672
14.856807 8.2321787 -1.8896091
13.789793 8.8221903 -1.7714514
12.966842 9.499649 -1.6961609
15.885219 13.255177 -2.2788339
15.440752 14.630798 -2.3041608
14.952544 16.073931 -2.335849
2.931062 3.5786467 -0.084567696
2.7137017 3.7752044 -0.073846295
2.3063874 3.6764655 -0.02231813
1.9150381 3.5277236 0.029738368
1.6112124 3.4724844 0.064146973
1.4504451 3.722465 0.058675982
1.2095218 3.7929122 0.074023247
0.96387768 3.8409693 0.09025839
0.71495599 3.8616722 0.10771378
0.47020033 3.889935 0.12279081
0.22796981 3.9575937 0.13279647
-0.020921048 4.0295343 0.14142765
-0.27406925 4.0299587 0.15526621
-0.52809232 4.0206723 0.16857816
-0.77243954 3.9467235 0.1857335
-1.0114807 3.8654172 0.20188792
-1.263899 3.8320889 0.21294162
-1.4514076 3.6209896 0.2357247
-1.6463737 3.4624443 0.25294444
-1.8387942 3.3147149 0.2678816
-2.0576868 3.2167377 0.27796382
-2.2859433 3.1240842 0.28637871
-2.52004 3.0267308 0.29378682
-2.7536116 2.9151742 0.30077228
-2.9606602 2.7652783 0.30892754
-3.0885918 2.5423217 0.32072276
-3.24177 2.344249 0.32939902
-3.3915734 2.1428485 0.33688411
-3.4656901 1.8972886 0.34643263
-3.4728179 1.6276377 0.35703132
-3.4724123 1.3695339 0.36602116
-3.4698217 1.1232218 0.37336814
-3.5000153 0.89540809 0.37801102
-3.4799232 0.66149753 0.38299331
-3.2814119 0.41312006 0.39244398
-2.9812281 0.1869503 0.40371227
-2.772846 4.4049491e-05 0.41078335
-2.7101729 -0.16986598 0.41217515
-2.636548 -0.33184761 0.41301122
-2.5074069 -0.47654772 0.41487449
-2.4314492 -0.62195152 0.41418695
-2.3350883 -0.75580847 0.41348296
-2.2930391 -0.90429312 0.40997341
-2.1598389 -1.0121794 0.40934622
-2.0921087 -1.1452259 0.40533087
-2.0379181 -1.2874849 0.39977688
-1.9715149 -1.4255687 0.39379951
-1.9182988 -1.578897 0.38594112
-1.8946068 -1.7694474 0.3746888
-1.8589946 -1.9679263 0.36211911
-1.8059727 -2.1689365 0.34849277
-1.7356422 -2.3718503 0.33372942
-1.6578885 -2.5915649 0.31665108
-1.6054791 -2.8939357 0.29235983
-1.5578568 -3.2760787 0.26059455
-2.5847633 -13.206478 -0.5743956
-1.5400279 -11.725575 -0.4867875
-0.79435349 -11.682614 -0.51955557
-0.057893492 -11.199501 -0.51596981
0.61919129 -10.743152 -0.51539403
1.2550001 -10.378746 -0.52441347
1.844709 -9.960721 -0.52912927
2.4403856 -9.7219658 -0.55398601
3.0017972 -9.4106798 -0.57326156
3.5544376 -9.1197138 -0.59708542
4.086525 -8.8048277 -0.62050873
4.6475635 -8.5589056 -0.65590501
5.145884 -8.2002878 -0.6793952
5.6543322 -7.8636522 -0.70913446
6.1318669 -7.4841661 -0.73574054
6.6094737 -7.1026654 -0.76568729
7.1162353 -6.7404051 -0.80390203
7.5282946 -6.2793021 -0.82769006
8.3087721 -6.084374 -0.91765285
10.148412 -6.4893589 -1.1827557
10.747635 -5.9519768 -1.2388711
11.186266 -5.3013334 -1.2723128
12.63483 -5.0370574 -1.4667829
13.490107 -4.4126196 -1.569451
6.9310231 -1.7911538 -0.55080897
8.459672 -1.6238412 -0.77096426
15.972827 -2.0295811 -1.8841394
16.39205 -1.0361295 -1.9368868
18.336969 0.0024859544 -2.1473768
19.688578 1.2496256 -2.3448386
19.609816 2.4965475 -2.3425906
19.487646 3.745209 -2.3409271
19.318613 4.9966607 -2.339442
19.122789 6.258997 -2.3412569
18.861841 7.5231371 -2.3409126
18.558167 8.7982225 -2.3419857
18.07979 10.015316 -2.3242352
17.229584 11.019739 -2.2551651
16.631048 12.18052 -2.2332139
15.996857 13.344239 -2.2139361
15.586496 14.764119 -2.2436147
15.404371 16.553946 -2.3298798
2.9885287 3.6474633 -0.076910377
2.7925975 3.8834076 -0.071129918
2.3330612 3.7173538 -0.010549761
1.9720482 3.6309712 0.032517646
1.6763247 3.6108208 0.062716052
1.4903264 3.8223748 0.063244641
1.2521853 3.9237075 0.075805806
0.99467272 3.9599197 0.093892492
0.73612201 3.9709549 0.11275297
0.48200136 3.9799097 0.13008285
0.23645608 4.0885291 0.13700438
-0.020583918 4.1485515 0.14740102
-0.27862254 4.1108413 0.16479348
-0.53393966 4.0723724 0.18070602
-0.78225064 4.0016308 0.19762738
-1.0332009 3.9519978 0.21150218
-1.2778971 3.877363 0.22582877
-1.4760908 3.6848323 0.24688959
-1.673764 3.5219193 0.26424259
-1.8680689 3.3690698 0.2794266
-2.0940306 3.2749362 0.28943425
-2.321507 3.1739085 0.29863679
-2.5654244 3.0823328 0.30597189
-2.825604 2.9923775 0.31188697
-3.048064 2.8477945 0.31983709
-3.1530592 2.5961449 0.33319011
-3.3557866 2.427372 0.33983946
-3.458672 2.1858218 0.34990153
-3.5416369 1.9393593 0.35910141
-3.5359755 1.6576451 0.36994067
-3.5286834 1.3920579 0.37891659
-3.5327036 1.1438406 0.38582301
-3.5742474 0.91460294 0.39007974
-3.5786386 0.68040878 0.39414552
-3.3552647 0.42250404 0.4034583
-3.0284147 0.18994264 0.41424334
-2.822463 3.5218112e-05 0.42040023
-2.7485304 -0.17231913 0.42187309
-2.6643343 -0.33543164 0.42276275
-2.5363235 -0.48216492 0.42414904
-2.4609056 -0.6296441 0.42323795
-2.3670774 -0.76635575 0.42218053
-2.3169076 -0.91393995 0.41892862
-2.1862173 -1.0248091 0.41782784
-2.116739 -1.1590199 0.41379905
-2.0635955 -1.3040694 0.40820578
-1.9926312 -1.4412543 0.4024238
-1.9457741 -1.6019961 0.39430976
-1.9216145 -1.795244 0.38333571
-1.8839465 -1.9950167 0.37115109
-1.8518498 -2.2248423 0.35611954
-1.7643574 -2.4120395 0.34281936
-1.6867665 -2.6378412 0.32585448
-1.6321774 -2.9434659 0.30222103
-1.572722 -11.995744 -0.46123317
-0.80507183 -11.880604 -0.48929006
-0.055961818 -11.330578 -0.48260653
0.62833542 -10.858376 -0.48283032
1.2692852 -10.476809 -0.49191529
1.8656272 -10.06097 -0.49857813
2.458353 -9.7843122 -0.52039796
3.0269759 -9.4824514 -0.54162359
3.5862882 -9.1956244 -0.56671423
4.1236672 -8.8800182 -0.59087783
4.6887398 -8.6305914 -0.62624729
5.1916904 -8.2697229 -0.65025902
5.7208323 -7.9530206 -0.68360883
6.2147202 -7.5825591 -0.71267682
6.7105737 -7.2088962 -0.74511409
7.2459121 -6.8610816 -0.78720802
7.6271858 -6.3599048 -0.80487388
8.4402475 -6.1789145 -0.89768445
10.21069 -6.5274296 -1.1439586
10.791339 -5.9746404 -1.1959417
11.240959 -5.3259311 -1.2305548
13.096064 -5.2196813 -1.4814292
13.619595 -4.4539385 -1.5312239
8.1671028 -2.1101124 -0.70401263
15.922491 -3.0556703 -1.8264315
16.169905 -2.054199 -1.8474709
16.713671 -1.0562711 -1.9168013
18.923042 0.0024996228 -2.1553056
20.220419 1.2830135 -2.3395796
20.163441 2.5663607 -2.3404758
20.046455 3.851624 -2.3396747
19.883625 5.1414967 -2.3392706
19.667421 6.4356179 -2.3383341
19.393908 7.7333541 -2.3364611
19.115309 9.0599623 -2.341608
18.21637 10.088233 -2.2612152
17.305593 11.065243 -2.1841123
16.686832 12.217801 -2.1586056
16.272593 13.570092 -2.1748855
15.729086 14.894366 -2.1809592
15.729698 16.897736 -2.2961104
14.860664 18.130569 -2.2737279
2.8890986 4.0159965 -0.070811532
2.3607788 3.7598684 0.0013897724
2.0196826 3.7168643 0.038393147
1.7330511 3.7309508 0.064630583
1.5347179 3.933717 0.067414232
1.2926397 4.0473862 0.07942611
1.0268171 4.0840116 0.098001316
0.75808185 4.0842371 0.11830688
0.49892634 4.1117673 0.13437487
0.24537033 4.2257938 0.14172347
-0.020017831 4.2307615 0.15730628
-0.28279153 4.1865864 0.17536643
-0.54243082 4.1444559 0.19173403
-0.79263705 4.0596166 0.20974767
-1.0532476 4.0323286 0.22226089
-1.3036542 3.9584074 0.236717
-1.5024747 3.7530015 0.25832433
-1.6929207 3.5641234 0.27714571
-1.8978137 3.4243236 0.29141232
-2.1316042 3.3351076 0.30133775
-2.3506091 3.2149334 0.31190163
-2.6082277 3.1348722 0.3189103
-2.8699439 3.0403368 0.32552579
-3.1364062 2.9312387 0.33165616
-3.2363706 2.6655197 0.34543014
-3.4304616 2.4820764 0.35309151
-3.5091686 2.218323 0.36420068
-3.6342459 1.9905776 0.37187907
-3.6142709 1.6947656 0.3829217
-3.5924733 1.4175595 0.39207423
-3.5990636 1.1655953 0.39871237
-3.6520863 0.93472946 0.40266818
-3.6632349 0.69664311 0.40646353
-3.4261558 0.43151888 0.41514373
-3.0727086 0.19275458 0.42522609
-2.868572 2.6012212e-05 0.43050155
-2.7800932 -0.17434753 0.43204758
-2.6900303 -0.3387543 0.43279403
-2.5668902 -0.48809868 0.43361965
-2.4896722 -0.637164 0.43255404
-2.3991549 -0.77693719 0.43114755
-2.3401039 -0.92332649 0.42811325
-2.2181289 -1.0400401 0.4263621
-2.1406767 -1.1724422 0.42252037
-2.0898607 -1.3210346 0.41685784
-2.0166261 -1.4590315 0.41113371
-1.9697663 -1.6222404 0.40313819
-1.951424 -1.8236753 0.39212766
-1.9194468 -2.0332997 0.37981826
-1.893669 -2.2759118 0.36461347
-1.7940058 -2.4535367 0.35222721
-1.7305799 -2.7075243 0.33406106
-1.6857277 -3.0414915 0.30949607
-1.6545556 -12.642344 -0.46215248
-0.81542009 -12.074468 -0.45711318
-0.054090947 -11.487385 -0.45032513
0.6371299 -10.966666 -0.44874495
1.2813222 -10.555978 -0.45691505
1.8842865 -10.148803 -0.46603003
2.4762478 -9.8462524 -0.48625538
3.0511734 -9.5510435 -0.50904709
3.6181972 -9.2715883 -0.53569704
4.1613784 -8.9563513 -0.56071877
4.7276211 -8.6979876 -0.5953961
5.2339215 -8.3334055 -0.61969328
5.7751226 -8.0253525 -0.65474969
6.2838135 -7.6640992 -0.68598545
6.8224378 -7.3266149 -0.72529829
7.3696542 -6.9760642 -0.76807106
7.7901287 -6.4938526 -0.79165858
8.8123188 -6.4494867 -0.91505384
10.279157 -6.5694361 -1.1055561
10.832502 -5.9958863 -1.1522464
11.291975 -5.3487744 -1.1877826
13.260493 -5.2839494 -1.448468
13.74928 -4.4953027 -1.4919493
8.2961969 -2.142983 -0.68832219
16.685555 -3.2014122 -1.8690733
16.321802 -2.0730681 -1.802848
17.000589 -1.074213 -1.889258
19.586037 0.0025191412 -2.169003
20.783859 1.3183867 -2.3343496
20.749846 2.6403081 -2.3383615
20.627493 3.962254 -2.3369076
20.451031 5.2868781 -2.3347428
20.22604 6.6167245 -2.3327687
19.928596 7.9445076 -2.3277836
19.290466 9.1405659 -2.2812073
18.33746 10.152534 -2.1946988
17.377464 11.108075 -2.1117523
16.737701 12.251462 -2.0827267
16.393251 13.666522 -2.1083045
15.854725 15.008483 -2.1139743
15.991529 17.173103 -2.2476273
15.121853 18.442425 -2.2258809
2.9891751 4.1534472 -0.069851391
2.3936052 3.8104789 0.012696137
2.0587411 3.7868984 0.046948761
1.8028342 3.8790419 0.064465962
1.583549 4.0562892 0.07135348
1.3311487 4.1647902 0.084710695
1.0599229 4.2116885 0.10279518
0.78131968 4.2041097 0.12419273
